ply
format ascii 1.0
element vertex 1414
property float x
property float y
property float z
property uchar red
property uchar green
property uchar blue
end_header
-1.0194 -0.2640 92.6518 84 123 182
-1.0278 -0.2703 92.6893 84 123 182
-1.0362 -0.2767 92.7268 83 123 181
-1.0443 -0.2829 92.7643 83 123 181
-1.0523 -0.2892 92.8018 83 123 181
-1.0601 -0.2954 92.8393 83 122 181
-1.0677 -0.3016 92.8768 83 122 181
-1.0751 -0.3077 92.9143 83 122 181
-1.0823 -0.3138 92.9518 83 122 181
-1.0894 -0.3199 92.9893 83 122 181
-1.0963 -0.3259 93.0268 83 122 181
-1.1030 -0.3319 93.0643 83 122 181
-1.1095 -0.3379 93.1018 83 122 181
-1.1158 -0.3438 93.1393 82 122 181
-1.1220 -0.3496 93.1768 82 122 181
-1.1279 -0.3555 93.2143 82 122 181
-1.1337 -0.3613 93.2518 82 122 181
-1.1393 -0.3670 93.2893 82 122 181
-1.1447 -0.3727 93.3268 82 122 181
-1.1499 -0.3784 93.3643 82 121 181
-1.1549 -0.3840 93.4018 82 121 181
-1.1597 -0.3896 93.4393 82 121 181
-1.1643 -0.3951 93.4768 82 121 181
-1.1688 -0.4006 93.5143 82 121 181
-1.1730 -0.4060 93.5518 81 121 181
-1.1771 -0.4114 93.5893 81 121 181
-1.1810 -0.4168 93.6268 81 121 181
-1.1847 -0.4221 93.6643 81 121 181
-1.1881 -0.4274 93.7018 81 121 180
-1.1914 -0.4326 93.7393 81 121 180
-1.1945 -0.4378 93.7768 81 121 180
-1.1974 -0.4429 93.8143 81 121 180
-1.2002 -0.4480 93.8518 81 121 180
-1.2027 -0.4530 93.8893 81 121 180
-1.2050 -0.4580 93.9268 81 120 180
-1.2071 -0.4629 93.9643 81 120 180
-1.2091 -0.4678 94.0018 80 120 180
-1.2108 -0.4726 94.0393 80 120 180
-1.2124 -0.4774 94.0768 80 120 180
-1.2138 -0.4821 94.1143 80 120 180
-1.2149 -0.4868 94.1518 80 120 180
-1.2159 -0.4914 94.1893 80 120 180
-1.2167 -0.4960 94.2268 80 120 180
-1.2173 -0.5006 94.2643 80 120 180
-1.2177 -0.5050 94.3018 80 120 180
-1.2179 -0.5095 94.3393 80 120 180
-1.2179 -0.5138 94.3768 80 120 180
-1.2177 -0.5181 94.4143 79 120 180
-1.2173 -0.5224 94.4518 79 120 180
-1.2168 -0.5266 94.4893 79 119 180
-1.2160 -0.5308 94.5268 79 119 180
-1.2151 -0.5349 94.5643 79 119 180
-1.2139 -0.5389 94.6018 79 119 180
-1.2126 -0.5429 94.6393 79 119 180
-1.2111 -0.5469 94.6768 79 119 179
-1.2094 -0.5507 94.7143 79 119 179
-1.2075 -0.5546 94.7518 79 119 179
-1.2055 -0.5583 94.7893 79 119 179
-1.2032 -0.5621 94.8268 78 119 179
-1.2008 -0.5657 94.8643 78 119 179
-1.1981 -0.5693 94.9018 78 119 179
-1.1953 -0.5729 94.9393 78 119 179
-1.1923 -0.5764 94.9768 78 119 179
-1.1891 -0.5798 95.0143 78 118 179
-1.1858 -0.5832 95.0518 78 118 179
-1.1822 -0.5865 95.0893 78 118 179
-1.1785 -0.5898 95.1268 78 118 179
-1.1746 -0.5930 95.1643 78 118 179
-1.1705 -0.5961 95.2018 78 118 179
-1.1662 -0.5992 95.2393 77 118 179
-1.1618 -0.6022 95.2768 77 118 179
-1.1572 -0.6052 95.3143 77 118 179
-1.1524 -0.6081 95.3518 77 118 179
-1.1474 -0.6110 95.3893 77 118 179
-1.1423 -0.6138 95.4268 77 118 179
-1.1370 -0.6165 95.4643 77 118 179
-1.1315 -0.6192 95.5018 77 118 179
-1.1259 -0.6218 95.5393 77 118 179
-1.1201 -0.6243 95.5768 77 117 179
-1.1141 -0.6268 95.6143 77 117 179
-1.1080 -0.6293 95.6518 77 117 178
-1.1016 -0.6316 95.6893 76 117 178
-1.0952 -0.6339 95.7268 76 117 178
-1.0885 -0.6362 95.7643 76 117 178
-1.0817 -0.6384 95.8018 76 117 178
-1.0748 -0.6405 95.8393 76 117 178
-1.0677 -0.6426 95.8768 76 117 178
-1.0604 -0.6446 95.9143 76 117 178
-1.0530 -0.6466 95.9518 76 117 178
-1.0454 -0.6484 95.9893 76 117 178
-1.0377 -0.6503 96.0268 76 117 178
-1.0298 -0.6520 96.0643 76 117 178
-1.0218 -0.6537 96.1018 76 117 177
-1.0136 -0.6554 96.1393 76 117 177
-1.0053 -0.6570 96.1768 76 116 177
-0.9968 -0.6585 96.2143 76 116 177
-0.9882 -0.6600 96.2518 76 116 177
-0.9795 -0.6613 96.2893 76 116 177
-0.9706 -0.6627 96.3268 76 116 177
-0.9616 -0.6640 96.3643 76 116 177
-0.9524 -0.6652 96.4018 76 116 177
-0.9431 -0.6663 96.4393 76 116 177
-0.9337 -0.6674 96.4768 76 116 177
-0.9241 -0.6685 96.5143 76 116 176
-0.9144 -0.6694 96.5518 76 116 176
-0.9046 -0.6703 96.5893 76 116 176
-0.8947 -0.6712 96.6268 76 116 176
-0.8846 -0.6720 96.6643 75 116 176
-0.8744 -0.6727 96.7018 75 116 176
-0.8641 -0.6733 96.7393 75 116 176
-0.8537 -0.6740 96.7768 75 116 176
-0.8431 -0.6745 96.8143 75 115 176
-0.8325 -0.6750 96.8518 75 115 176
-0.8217 -0.6754 96.8893 75 115 176
-0.8108 -0.6757 96.9268 75 115 175
-0.7998 -0.6760 96.9643 75 115 175
-0.7887 -0.6763 97.0018 75 115 175
-0.7775 -0.6764 97.0393 75 115 175
-0.7662 -0.6766 97.0768 75 115 175
-0.7548 -0.6766 97.1143 75 115 175
-0.7433 -0.6766 97.1518 75 115 175
-0.7317 -0.6765 97.1893 75 115 175
-0.7200 -0.6764 97.2268 75 115 175
-0.7082 -0.6762 97.2643 75 115 175
-0.6963 -0.6760 97.3018 75 115 175
-0.6843 -0.6757 97.3393 75 115 174
-0.6723 -0.6753 97.3768 75 115 174
-0.6601 -0.6749 97.4143 75 115 174
-0.6479 -0.6744 97.4518 75 114 174
-0.6356 -0.6738 97.4893 75 114 174
-0.6232 -0.6732 97.5268 75 114 174
-0.6107 -0.6726 97.5643 75 114 174
-0.5982 -0.6718 97.6018 75 114 174
-0.5856 -0.6711 97.6393 74 114 174
-0.5729 -0.6702 97.6768 74 114 174
-0.5601 -0.6693 97.7143 74 114 174
-0.5473 -0.6684 97.7518 74 114 174
-0.5344 -0.6673 97.7893 74 114 173
-0.5215 -0.6663 97.8268 74 114 173
-0.5085 -0.6651 97.8643 74 114 173
-0.4954 -0.6639 97.9018 74 114 173
-0.4823 -0.6627 97.9393 74 114 173
-0.4691 -0.6614 97.9768 74 114 173
-0.4559 -0.6600 98.0143 74 114 173
-0.4426 -0.6586 98.0518 74 114 173
-0.4293 -0.6571 98.0893 74 113 173
-0.4160 -0.6556 98.1268 74 113 173
-0.4026 -0.6540 98.1643 74 113 173
-0.3891 -0.6524 98.2018 74 113 172
-0.3756 -0.6507 98.2393 74 113 172
-0.3621 -0.6489 98.2768 74 113 172
-0.3486 -0.6471 98.3143 74 113 172
-0.3350 -0.6453 98.3518 74 113 172
-0.3214 -0.6434 98.3893 74 113 172
-0.3077 -0.6414 98.4268 74 113 172
-0.2941 -0.6394 98.4643 74 113 172
-0.2804 -0.6373 98.5018 74 113 172
-0.2667 -0.6352 98.5393 74 113 172
-0.2530 -0.6330 98.5768 74 113 172
-0.2393 -0.6307 98.6143 73 113 171
-0.2255 -0.6285 98.6518 73 113 171
-0.2118 -0.6261 98.6893 73 113 171
-0.1980 -0.6237 98.7268 73 112 171
-0.1842 -0.6213 98.7643 73 112 171
-0.1704 -0.6188 98.8018 73 112 171
-0.1567 -0.6162 98.8393 73 112 171
-0.1429 -0.6136 98.8768 73 112 171
-0.1291 -0.6110 98.9143 73 112 171
-0.1153 -0.6083 98.9518 73 112 171
-0.1016 -0.6056 98.9893 73 112 171
-0.0878 -0.6028 99.0268 73 112 170
-0.0740 -0.5999 99.0643 73 112 170
-0.0603 -0.5970 99.1018 73 112 170
-0.0466 -0.5941 99.1393 73 112 170
-0.0329 -0.5911 99.1768 73 112 170
-0.0192 -0.5881 99.2143 73 112 170
-0.0056 -0.5850 99.2518 73 112 170
0.0081 -0.5818 99.2893 73 112 170
0.0217 -0.5787 99.3268 73 112 170
0.0353 -0.5754 99.3643 73 111 170
0.0488 -0.5722 99.4018 73 111 170
0.0623 -0.5689 99.4393 73 111 169
0.0758 -0.5655 99.4768 73 111 169
0.0893 -0.5621 99.5143 73 111 169
0.1027 -0.5587 99.5518 73 111 169
0.1161 -0.5552 99.5893 72 111 169
0.1294 -0.5516 99.6268 72 111 169
0.1427 -0.5481 99.6643 72 111 169
0.1559 -0.5444 99.7018 72 111 169
0.1691 -0.5408 99.7393 72 111 169
0.1822 -0.5371 99.7768 72 111 169
0.1953 -0.5333 99.8143 72 111 169
0.2083 -0.5295 99.8518 72 111 169
0.2213 -0.5257 99.8893 72 111 168
0.2342 -0.5219 99.9268 72 111 168
0.2471 -0.5180 99.9643 72 111 168
0.2599 -0.5140 100.0018 72 110 168
0.2726 -0.5100 100.0393 72 110 168
0.2852 -0.5060 100.0768 72 110 168
0.2978 -0.5019 100.1143 72 110 168
0.3104 -0.4978 100.1518 72 110 168
0.3228 -0.4937 100.1893 72 110 168
0.3352 -0.4895 100.2268 72 110 168
0.3475 -0.4853 100.2643 72 110 168
0.3597 -0.4811 100.3018 72 110 167
0.3718 -0.4768 100.3393 72 110 167
0.3839 -0.4725 100.3768 72 110 167
0.3959 -0.4682 100.4143 72 110 167
0.4078 -0.4638 100.4518 72 110 167
0.4196 -0.4594 100.4893 72 110 167
0.4313 -0.4549 100.5268 72 110 167
0.4429 -0.4504 100.5643 71 110 167
0.4544 -0.4459 100.6018 71 110 167
0.4659 -0.4414 100.6393 71 109 167
0.4772 -0.4368 100.6768 71 109 167
0.4885 -0.4322 100.7143 71 109 166
0.4996 -0.4276 100.7518 71 109 166
0.5107 -0.4229 100.7893 71 109 166
0.5216 -0.4182 100.8268 71 109 166
0.5325 -0.4135 100.8643 71 109 166
0.5432 -0.4088 100.9018 71 109 166
0.5539 -0.4040 100.9393 71 109 166
0.5644 -0.3992 100.9768 71 109 166
0.5748 -0.3943 101.0143 71 109 166
0.5851 -0.3895 101.0518 71 109 166
0.5953 -0.3846 101.0893 71 109 166
0.6054 -0.3797 101.1268 71 109 165
0.6154 -0.3748 101.1643 71 109 165
0.6252 -0.3698 101.2018 71 109 165
0.6350 -0.3648 101.2393 71 109 165
0.6446 -0.3598 101.2768 71 109 165
0.6541 -0.3548 101.3143 71 108 165
0.6635 -0.3497 101.3518 71 108 165
0.6727 -0.3447 101.3893 71 108 165
0.6818 -0.3396 101.4268 71 108 165
0.6908 -0.3345 101.4643 71 108 165
0.6997 -0.3293 101.5018 71 108 165
0.7085 -0.3242 101.5393 70 108 164
0.7171 -0.3190 101.5768 70 108 164
0.7256 -0.3138 101.6143 70 108 164
0.7339 -0.3086 101.6518 70 108 164
0.7422 -0.3034 101.6893 70 108 164
0.7503 -0.2982 101.7268 70 108 164
0.7582 -0.2929 101.7643 70 108 164
0.7661 -0.2876 101.8018 70 108 164
0.7738 -0.2823 101.8393 70 108 164
0.7813 -0.2770 101.8768 70 108 164
0.7887 -0.2717 101.9143 70 108 164
0.7960 -0.2664 101.9518 70 107 164
0.8031 -0.2610 101.9893 70 107 163
0.8101 -0.2557 102.0268 70 107 163
0.8170 -0.2503 102.0643 70 107 163
0.8237 -0.2449 102.1018 70 107 163
0.8303 -0.2395 102.1393 70 107 163
0.8367 -0.2341 102.1768 70 107 163
0.8430 -0.2287 102.2143 70 107 163
0.8491 -0.2232 102.2518 70 107 163
0.8551 -0.2178 102.2893 70 107 163
0.8609 -0.2124 102.3268 70 107 163
0.8666 -0.2069 102.3643 70 107 163
0.8722 -0.2014 102.4018 70 107 162
0.8776 -0.1960 102.4393 70 107 162
0.8828 -0.1905 102.4768 70 107 162
0.8879 -0.1850 102.5143 70 107 162
0.8929 -0.1795 102.5518 69 107 162
0.8977 -0.1740 102.5893 69 106 162
0.9023 -0.1685 102.6268 69 106 162
0.9068 -0.1630 102.6643 69 106 162
0.9112 -0.1575 102.7018 69 106 162
0.9154 -0.1520 102.7393 69 106 162
0.9194 -0.1465 102.7768 69 106 162
0.9233 -0.1410 102.8143 69 106 161
0.9270 -0.1354 102.8518 69 106 161
0.9306 -0.1299 102.8893 69 106 161
0.9340 -0.1244 102.9268 69 106 161
0.9373 -0.1189 102.9643 69 106 161
0.9404 -0.1134 103.0018 69 106 161
0.9433 -0.1078 103.0393 69 106 161
0.9462 -0.1023 103.0768 69 106 161
0.9488 -0.0968 103.1143 69 106 161
0.9513 -0.0913 103.1518 69 106 161
0.9536 -0.0858 103.1893 69 106 161
0.9558 -0.0803 103.2268 69 105 160
0.9578 -0.0748 103.2643 69 105 160
0.9597 -0.0693 103.3018 69 105 160
0.9614 -0.0638 103.3393 69 105 160
0.9630 -0.0583 103.3768 69 105 160
0.9644 -0.0528 103.4143 69 105 160
0.9656 -0.0473 103.4518 69 105 160
0.9667 -0.0419 103.4893 69 105 160
0.9677 -0.0364 103.5268 68 105 160
0.9685 -0.0309 103.5643 68 105 160
0.9691 -0.0255 103.6018 68 105 160
0.9696 -0.0200 103.6393 68 105 159
0.9699 -0.0146 103.6768 68 105 159
0.9700 -0.0092 103.7143 68 105 159
0.9701 -0.0038 103.7518 68 105 159
0.9699 0.0016 103.7893 68 105 159
0.9696 0.0070 103.8268 68 105 159
0.9692 0.0124 103.8643 68 104 159
0.9686 0.0177 103.9018 68 104 159
0.9678 0.0231 103.9393 68 104 159
0.9669 0.0284 103.9768 68 104 159
0.9659 0.0338 104.0143 68 104 159
0.9647 0.0391 104.0518 68 104 159
0.9633 0.0444 104.0893 68 104 158
0.9618 0.0496 104.1268 68 104 158
0.9602 0.0549 104.1643 68 104 158
0.9584 0.0602 104.2018 68 104 158
0.9564 0.0654 104.2393 68 104 158
0.9543 0.0706 104.2768 68 104 158
0.9521 0.0758 104.3143 68 104 158
0.9497 0.0810 104.3518 68 104 158
0.9471 0.0862 104.3893 68 104 158
0.9445 0.0913 104.4268 68 104 158
0.9416 0.0964 104.4643 68 104 158
0.9387 0.1016 104.5018 67 103 157
0.9356 0.1066 104.5393 67 103 157
0.9323 0.1117 104.5768 67 103 157
0.9289 0.1168 104.6143 67 103 157
0.9254 0.1218 104.6518 67 103 157
0.9217 0.1268 104.6893 67 103 157
0.9179 0.1318 104.7268 67 103 157
0.9140 0.1367 104.7643 67 103 157
0.9099 0.1417 104.8018 67 103 157
0.9057 0.1466 104.8393 67 103 157
0.9013 0.1515 104.8768 67 103 157
0.8968 0.1564 104.9143 67 103 156
0.8922 0.1612 104.9518 67 103 156
0.8875 0.1660 104.9893 67 103 156
0.8826 0.1708 105.0268 67 103 156
0.8776 0.1756 105.0643 67 103 156
0.8724 0.1803 105.1018 67 103 156
0.8672 0.1850 105.1393 67 102 156
0.8618 0.1897 105.1768 67 102 156
0.8563 0.1944 105.2143 67 102 156
0.8506 0.1990 105.2518 67 102 156
0.8449 0.2036 105.2893 67 102 156
0.8390 0.2082 105.3268 67 102 155
0.8330 0.2128 105.3643 67 102 155
0.8268 0.2173 105.4018 67 102 155
0.8206 0.2218 105.4393 67 102 155
0.8142 0.2263 105.4768 66 102 155
0.8078 0.2307 105.5143 66 102 155
0.8012 0.2351 105.5518 66 102 155
0.7945 0.2395 105.5893 66 102 155
0.7877 0.2438 105.6268 66 102 155
0.7807 0.2481 105.6643 66 102 155
0.7737 0.2524 105.7018 66 102 155
0.7666 0.2567 105.7393 66 102 154
0.7593 0.2609 105.7768 66 101 154
0.7520 0.2651 105.8143 66 101 154
0.7445 0.2692 105.8518 66 101 154
0.7370 0.2733 105.8893 66 101 154
0.7293 0.2774 105.9268 66 101 154
0.7216 0.2815 105.9643 66 101 154
0.7137 0.2855 106.0018 66 101 154
0.7058 0.2895 106.0393 66 101 154
0.6977 0.2934 106.0768 66 101 154
0.6896 0.2973 106.1143 66 101 154
0.6814 0.3012 106.1518 66 101 154
0.6730 0.3050 106.1893 66 101 153
0.6646 0.3088 106.2268 66 101 153
0.6561 0.3126 106.2643 66 101 153
0.6476 0.3163 106.3018 66 101 153
0.6389 0.3200 106.3393 66 101 153
0.6302 0.3237 106.3768 66 101 153
0.6213 0.3273 106.4143 66 100 153
0.6124 0.3309 106.4518 65 100 153
0.6034 0.3344 106.4893 65 100 153
0.5944 0.3380 106.5268 65 100 153
0.5852 0.3414 106.5643 65 100 153
0.5760 0.3449 106.6018 65 100 152
0.5668 0.3482 106.6393 65 100 152
0.5574 0.3516 106.6768 65 100 152
0.5480 0.3549 106.7143 65 100 152
0.5385 0.3582 106.7518 65 100 152
0.5290 0.3614 106.7893 65 100 152
0.5194 0.3646 106.8268 65 100 152
0.5097 0.3678 106.8643 65 100 152
0.5000 0.3709 106.9018 65 100 152
0.4902 0.3740 106.9393 65 100 152
0.4804 0.3770 106.9768 65 100 152
0.4705 0.3800 107.0143 65 100 151
0.4605 0.3830 107.0518 65 99 151
0.4505 0.3859 107.0893 65 99 151
0.4405 0.3887 107.1268 65 99 151
0.4304 0.3916 107.1643 65 99 151
0.4202 0.3944 107.2018 65 99 151
0.4100 0.3971 107.2393 65 99 151
0.3998 0.3998 107.2768 65 99 151
0.3896 0.4025 107.3143 65 99 151
0.3792 0.4051 107.3518 65 99 151
0.3689 0.4077 107.3893 65 99 151
0.3585 0.4102 107.4268 64 99 150
0.3481 0.4127 107.4643 64 99 150
0.3377 0.4151 107.5018 64 99 150
0.3272 0.4176 107.5393 64 99 150
0.3167 0.4199 107.5768 64 99 150
0.3062 0.4222 107.6143 64 99 150
0.2956 0.4245 107.6518 64 99 150
0.2850 0.4267 107.6893 64 98 150
0.2744 0.4289 107.7268 64 98 150
0.2638 0.4311 107.7643 64 98 150
0.2532 0.4332 107.8018 64 98 150
0.2425 0.4352 107.8393 64 98 149
0.2319 0.4372 107.8768 64 98 149
0.2212 0.4392 107.9143 64 98 149
0.2105 0.4411 107.9518 64 98 149
0.1998 0.4430 107.9893 64 98 149
0.1891 0.4449 108.0268 64 98 149
0.1784 0.4466 108.0643 64 98 149
0.1677 0.4484 108.1018 64 98 149
0.1570 0.4501 108.1393 64 98 149
0.1463 0.4518 108.1768 64 98 149
0.1356 0.4534 108.2143 64 98 149
0.1248 0.4549 108.2518 64 98 149
0.1141 0.4565 108.2893 64 98 148
0.1034 0.4579 108.3268 64 97 148
0.0928 0.4594 108.3643 64 97 148
0.0821 0.4608 108.4018 63 97 148
0.0714 0.4621 108.4393 63 97 148
0.0608 0.4634 108.4768 63 97 148
0.0501 0.4647 108.5143 63 97 148
0.0395 0.4659 108.5518 63 97 148
0.0289 0.4670 108.5893 63 97 148
0.0183 0.4682 108.6268 63 97 148
0.0077 0.4692 108.6643 63 97 148
-0.0028 0.4703 108.7018 63 97 147
-0.0133 0.4712 108.7393 63 97 147
-0.0238 0.4722 108.7768 63 97 147
-0.0343 0.4731 108.8143 63 97 147
-0.0447 0.4739 108.8518 63 97 147
-0.0551 0.4747 108.8893 63 97 147
-0.0654 0.4755 108.9268 63 97 147
-0.0758 0.4762 108.9643 63 96 147
-0.0861 0.4769 109.0018 63 96 147
-0.0963 0.4775 109.0393 63 96 147
-0.1065 0.4781 109.0768 63 96 147
-0.1167 0.4786 109.1143 63 96 146
-0.1268 0.4791 109.1518 63 96 146
-0.1369 0.4796 109.1893 63 96 146
-0.1470 0.4800 109.2268 63 96 146
-0.1570 0.4803 109.2643 63 96 146
-0.1669 0.4806 109.3018 63 96 146
-0.1768 0.4809 109.3393 63 96 146
-0.1866 0.4811 109.3768 63 96 146
-0.1964 0.4813 109.4143 62 96 146
-0.2062 0.4814 109.4518 62 96 146
-0.2158 0.4815 109.4893 62 96 146
-0.2255 0.4816 109.5268 62 96 145
-0.2350 0.4816 109.5643 62 96 145
-0.2445 0.4815 109.6018 62 95 145
-0.2540 0.4815 109.6393 62 95 145
-0.2633 0.4813 109.6768 62 95 145
-0.2726 0.4812 109.7143 62 95 145
-0.2819 0.4810 109.7518 62 95 145
-0.2911 0.4807 109.7893 62 95 145
-0.3002 0.4804 109.8268 62 95 145
-0.3092 0.4801 109.8643 62 95 145
-0.3182 0.4797 109.9018 62 95 145
-0.3271 0.4792 109.9393 62 95 144
-0.3359 0.4788 109.9768 62 95 144
-0.3447 0.4783 110.0143 62 95 144
-0.3533 0.4777 110.0518 62 95 144
-0.3619 0.4771 110.0893 62 95 144
-0.3704 0.4765 110.1268 62 95 144
-0.3789 0.4758 110.1643 62 95 144
-0.3872 0.4751 110.2018 62 95 144
-0.3955 0.4743 110.2393 62 94 144
-0.4037 0.4735 110.2768 62 94 144
-0.4118 0.4727 110.3143 62 94 144
-0.4198 0.4718 110.3518 62 94 144
-0.4277 0.4709 110.3893 61 94 143
-0.4356 0.4699 110.4268 61 94 143
-0.4433 0.4689 110.4643 61 94 143
-0.4510 0.4678 110.5018 61 94 143
-0.4586 0.4668 110.5393 61 94 143
-0.4661 0.4656 110.5768 61 94 143
-0.4735 0.4645 110.6143 61 94 143
-0.4808 0.4633 110.6518 61 94 143
-0.4880 0.4620 110.6893 61 94 143
-0.4951 0.4607 110.7268 61 94 143
-0.5021 0.4594 110.7643 61 94 143
-0.5090 0.4580 110.8018 61 94 142
-0.5158 0.4566 110.8393 61 94 142
-0.5225 0.4552 110.8768 61 93 142
-0.5291 0.4537 110.9143 61 93 142
-0.5356 0.4522 110.9518 61 93 142
-0.5421 0.4507 110.9893 61 93 142
-0.5484 0.4491 111.0268 61 93 142
-0.5546 0.4475 111.0643 61 93 142
-0.5607 0.4458 111.1018 61 93 142
-0.5667 0.4441 111.1393 61 93 142
-0.5726 0.4424 111.1768 61 93 142
-0.5784 0.4406 111.2143 61 93 141
-0.5840 0.4388 111.2518 61 93 141
-0.5896 0.4370 111.2893 61 93 141
-0.5951 0.4351 111.3268 61 93 141
-0.6004 0.4332 111.3643 60 93 141
-0.6057 0.4312 111.4018 60 93 141
-0.6108 0.4293 111.4393 60 93 141
-0.6158 0.4272 111.4768 60 93 141
-0.6207 0.4252 111.5143 60 92 141
-0.6255 0.4231 111.5518 60 92 141
-0.6302 0.4210 111.5893 60 92 141
-0.6348 0.4189 111.6268 60 92 140
-0.6393 0.4167 111.6643 60 92 140
-0.6436 0.4145 111.7018 60 92 140
-0.6479 0.4122 111.7393 60 92 140
-0.6520 0.4100 111.7768 60 92 140
-0.6560 0.4077 111.8143 60 92 140
-0.6599 0.4053 111.8518 60 92 140
-0.6637 0.4029 111.8893 60 92 140
-0.6673 0.4006 111.9268 60 92 140
-0.6709 0.3981 111.9643 60 92 140
-0.6743 0.3957 112.0018 60 92 140
-0.6776 0.3932 112.0393 60 92 139
-0.6808 0.3907 112.0768 60 92 139
-0.6839 0.3881 112.1143 60 92 139
-0.6869 0.3855 112.1518 60 91 139
-0.6897 0.3829 112.1893 60 91 139
-0.6924 0.3803 112.2268 60 91 139
-0.6950 0.3776 112.2643 60 91 139
-0.6975 0.3750 112.3018 60 91 139
-0.6999 0.3722 112.3393 59 91 139
-0.7022 0.3695 112.3768 59 91 139
-0.7043 0.3667 112.4143 59 91 139
-0.7063 0.3639 112.4518 59 91 139
-0.7082 0.3611 112.4893 59 91 138
-0.7100 0.3583 112.5268 59 91 138
-0.7117 0.3554 112.5643 59 91 138
-0.7132 0.3525 112.6018 59 91 138
-0.7147 0.3496 112.6393 59 91 138
-0.7160 0.3466 112.6768 59 91 138
-0.7172 0.3437 112.7143 59 91 138
-0.7183 0.3407 112.7518 59 91 138
-0.7192 0.3377 112.7893 59 90 138
-0.7201 0.3346 112.8268 59 90 138
-0.7208 0.3316 112.8643 59 90 138
-0.7214 0.3285 112.9018 59 90 137
-0.7219 0.3254 112.9393 59 90 137
-0.7223 0.3223 112.9768 59 90 137
-0.7225 0.3191 113.0143 59 90 137
-0.7227 0.3160 113.0518 59 90 137
-0.7227 0.3128 113.0893 59 90 137
-0.7226 0.3096 113.1268 59 90 137
-0.7224 0.3063 113.1643 59 90 137
-0.7221 0.3031 113.2018 59 90 137
-0.7216 0.2998 113.2393 59 90 137
-0.7211 0.2966 113.2768 59 90 137
-0.7204 0.2933 113.3143 58 90 136
-0.7196 0.2899 113.3518 58 90 136
-0.7188 0.2866 113.3893 58 90 136
-0.7178 0.2833 113.4268 58 89 136
-0.7166 0.2799 113.4643 58 89 136
-0.7154 0.2765 113.5018 58 89 136
-0.7141 0.2731 113.5393 58 89 136
-0.7126 0.2697 113.5768 58 89 136
-0.7111 0.2662 113.6143 58 89 136
-0.7094 0.2628 113.6518 58 89 136
-0.7077 0.2593 113.6893 58 89 136
-0.7058 0.2559 113.7268 58 89 135
-0.7038 0.2524 113.7643 58 89 135
-0.7017 0.2489 113.8018 58 89 135
-0.6995 0.2454 113.8393 58 89 135
-0.6972 0.2418 113.8768 58 89 135
-0.6948 0.2383 113.9143 58 89 135
-0.6922 0.2347 113.9518 58 89 135
-0.6896 0.2312 113.9893 58 89 135
-0.6869 0.2276 114.0268 58 89 135
-0.6841 0.2240 114.0643 58 89 135
-0.6811 0.2204 114.1018 58 88 135
-0.6781 0.2168 114.1393 58 88 134
-0.6750 0.2132 114.1768 58 88 134
-0.6718 0.2096 114.2143 58 88 134
-0.6684 0.2059 114.2518 58 88 134
-0.6650 0.2023 114.2893 57 88 134
-0.6615 0.1986 114.3268 57 88 134
-0.6579 0.1950 114.3643 57 88 134
-0.6542 0.1913 114.4018 57 88 134
-0.6504 0.1876 114.4393 57 88 134
-0.6465 0.1839 114.4768 57 88 134
-0.6425 0.1803 114.5143 57 88 134
-0.6384 0.1766 114.5518 57 88 134
-0.6342 0.1729 114.5893 57 88 133
-0.6300 0.1692 114.6268 57 88 133
-0.6256 0.1654 114.6643 57 88 133
-0.6212 0.1617 114.7018 57 88 133
-0.6166 0.1580 114.7393 57 87 133
-0.6120 0.1543 114.7768 57 87 133
-0.6073 0.1506 114.8143 57 87 133
-0.6025 0.1468 114.8518 57 87 133
-0.5977 0.1431 114.8893 57 87 133
-0.5927 0.1394 114.9268 57 87 133
-0.5877 0.1356 114.9643 57 87 133
-0.5826 0.1319 115.0018 57 87 132
-0.5774 0.1282 115.0393 57 87 132
-0.5722 0.1244 115.0768 57 87 132
-0.5668 0.1207 115.1143 57 87 132
-0.5614 0.1169 115.1518 57 87 132
-0.5559 0.1132 115.1893 57 87 132
-0.5504 0.1095 115.2268 57 87 132
-0.5447 0.1057 115.2643 56 87 132
-0.5390 0.1020 115.3018 56 87 132
-0.5333 0.0983 115.3393 56 87 132
-0.5274 0.0945 115.3768 56 86 132
-0.5215 0.0908 115.4143 56 86 131
-0.5156 0.0871 115.4518 56 86 131
-0.5095 0.0833 115.4893 56 86 131
-0.5034 0.0796 115.5268 56 86 131
-0.4973 0.0759 115.5643 56 86 131
-0.4910 0.0722 115.6018 56 86 131
-0.4847 0.0685 115.6393 56 86 131
-0.4784 0.0648 115.6768 56 86 131
-0.4720 0.0611 115.7143 56 86 131
-0.4655 0.0574 115.7518 56 86 131
-0.4590 0.0537 115.7893 56 86 131
-0.4525 0.0500 115.8268 56 86 130
-0.4458 0.0463 115.8643 56 86 130
-0.4392 0.0427 115.9018 56 86 130
-0.4324 0.0390 115.9393 56 86 130
-0.4257 0.0354 115.9768 56 86 130
-0.4188 0.0317 116.0143 56 85 130
-0.4120 0.0281 116.0518 56 85 130
-0.4051 0.0244 116.0893 56 85 130
-0.3981 0.0208 116.1268 56 85 130
-0.3911 0.0172 116.1643 56 85 130
-0.3841 0.0136 116.2018 56 85 130
-0.3770 0.0100 116.2393 56 85 130
-0.3699 0.0064 116.2768 55 85 129
-0.3627 0.0029 116.3143 55 85 129
-0.3555 -0.0007 116.3518 55 85 129
-0.3483 -0.0042 116.3893 55 85 129
-0.3410 -0.0078 116.4268 55 85 129
-0.3337 -0.0113 116.4643 55 85 129
-0.3264 -0.0148 116.5018 55 85 129
-0.3191 -0.0183 116.5393 55 85 129
-0.3117 -0.0218 116.5768 55 85 129
-0.3043 -0.0253 116.6143 55 85 129
-0.2968 -0.0288 116.6518 55 84 129
-0.2894 -0.0322 116.6893 55 84 128
-0.2819 -0.0356 116.7268 55 84 128
-0.2744 -0.0391 116.7643 55 84 128
-0.2668 -0.0425 116.8018 55 84 128
-0.2593 -0.0459 116.8393 55 84 128
-0.2517 -0.0493 116.8768 55 84 128
-0.2442 -0.0526 116.9143 55 84 128
-0.2366 -0.0560 116.9518 55 84 128
-0.2289 -0.0593 116.9893 55 84 128
-0.2213 -0.0626 117.0268 55 84 128
-0.2137 -0.0659 117.0643 55 84 128
-0.2060 -0.0692 117.1018 55 84 127
-0.1984 -0.0725 117.1393 55 84 127
-0.1907 -0.0757 117.1768 55 84 127
-0.1831 -0.0789 117.2143 55 84 127
-0.1754 -0.0822 117.2518 54 84 127
-0.1677 -0.0854 117.2893 54 83 127
-0.1600 -0.0885 117.3268 54 83 127
-0.1524 -0.0917 117.3643 54 83 127
-0.1447 -0.0948 117.4018 54 83 127
-0.1370 -0.0980 117.4393 54 83 127
-0.1293 -0.1011 117.4768 54 83 127
-0.1217 -0.1041 117.5143 54 83 126
-0.1140 -0.1072 117.5518 54 83 126
-0.1063 -0.1102 117.5893 54 83 126
-0.0987 -0.1133 117.6268 54 83 126
-0.0910 -0.1163 117.6643 54 83 126
-0.0834 -0.1193 117.7018 54 83 126
-0.0758 -0.1222 117.7393 54 83 126
-0.0682 -0.1252 117.7768 54 83 126
-0.0606 -0.1281 117.8143 54 83 126
-0.0530 -0.1310 117.8518 54 83 126
-0.0454 -0.1339 117.8893 54 83 126
-0.0379 -0.1367 117.9268 54 82 125
-0.0304 -0.1395 117.9643 54 82 125
-0.0228 -0.1424 118.0018 54 82 125
-0.0154 -0.1451 118.0393 54 82 125
-0.0079 -0.1479 118.0768 54 82 125
-0.0005 -0.1506 118.1143 54 82 125
0.0070 -0.1534 118.1518 54 82 125
0.0143 -0.1561 118.1893 54 82 125
0.0217 -0.1587 118.2268 53 82 125
0.0290 -0.1614 118.2643 53 82 125
0.0363 -0.1640 118.3018 53 82 125
0.0436 -0.1666 118.3393 53 82 125
0.0509 -0.1692 118.3768 53 82 124
0.0581 -0.1717 118.4143 53 82 124
0.0653 -0.1743 118.4518 53 82 124
0.0724 -0.1768 118.4893 53 82 124
0.0795 -0.1792 118.5268 53 82 124
0.0866 -0.1817 118.5643 53 81 124
0.0936 -0.1841 118.6018 53 81 124
0.1006 -0.1865 118.6393 53 81 124
0.1076 -0.1889 118.6768 53 81 124
0.1145 -0.1912 118.7143 53 81 124
0.1213 -0.1936 118.7518 53 81 124
0.1282 -0.1959 118.7893 53 81 123
0.1349 -0.1981 118.8268 53 81 123
0.1417 -0.2004 118.8643 53 81 123
0.1484 -0.2026 118.9018 53 81 123
0.1550 -0.2048 118.9393 53 81 123
0.1616 -0.2070 118.9768 53 81 123
0.1682 -0.2091 119.0143 53 81 123
0.1747 -0.2112 119.0518 53 81 123
0.1811 -0.2133 119.0893 53 81 123
0.1875 -0.2153 119.1268 53 81 123
0.1938 -0.2174 119.1643 53 81 123
0.2001 -0.2194 119.2018 52 80 122
0.2064 -0.2214 119.2393 52 80 122
0.2125 -0.2233 119.2768 52 80 122
0.2187 -0.2252 119.3143 52 80 122
0.2247 -0.2271 119.3518 52 80 122
0.2307 -0.2290 119.3893 52 80 122
0.2367 -0.2308 119.4268 52 80 122
0.2426 -0.2326 119.4643 52 80 122
0.2484 -0.2344 119.5018 52 80 122
0.2542 -0.2361 119.5393 52 80 122
0.2599 -0.2379 119.5768 52 80 122
0.2655 -0.2396 119.6143 52 80 121
0.2711 -0.2412 119.6518 52 80 121
0.2766 -0.2429 119.6893 52 80 121
0.2821 -0.2445 119.7268 52 80 121
0.2875 -0.2460 119.7643 52 80 121
0.2928 -0.2476 119.8018 52 80 121
0.2981 -0.2491 119.8393 52 79 121
0.3032 -0.2506 119.8768 52 79 121
0.3084 -0.2521 119.9143 52 79 121
0.3134 -0.2535 119.9518 52 79 121
0.3184 -0.2549 119.9893 52 79 121
0.3233 -0.2563 120.0268 52 79 120
0.3282 -0.2576 120.0643 52 79 120
0.3329 -0.2590 120.1018 52 79 120
0.3376 -0.2602 120.1393 52 79 120
0.3422 -0.2615 120.1768 51 79 120
0.3468 -0.2627 120.2143 51 79 120
0.3513 -0.2639 120.2518 51 79 120
0.3557 -0.2651 120.2893 51 79 120
0.3600 -0.2662 120.3268 51 79 120
0.3643 -0.2674 120.3643 51 79 120
0.3685 -0.2684 120.4018 51 79 120
0.3726 -0.2695 120.4393 51 79 120
0.3766 -0.2705 120.4768 51 78 119
0.3806 -0.2715 120.5143 51 78 119
0.3845 -0.2725 120.5518 51 78 119
0.3883 -0.2734 120.5893 51 78 119
0.3920 -0.2743 120.6268 51 78 119
0.3956 -0.2752 120.6643 51 78 119
0.3992 -0.2760 120.7018 51 78 119
0.4027 -0.2769 120.7393 51 78 119
0.4061 -0.2777 120.7768 51 78 119
0.4094 -0.2784 120.8143 51 78 119
0.4127 -0.2791 120.8518 51 78 119
0.4159 -0.2798 120.8893 51 78 118
0.4190 -0.2805 120.9268 51 78 118
0.4220 -0.2812 120.9643 51 78 118
0.4249 -0.2818 121.0018 51 78 118
0.4278 -0.2824 121.0393 51 78 118
0.4305 -0.2829 121.0768 51 78 118
0.4332 -0.2834 121.1143 51 77 118
0.4358 -0.2839 121.1518 50 77 118
0.4384 -0.2844 121.1893 50 77 118
0.4408 -0.2848 121.2268 50 77 118
0.4432 -0.2853 121.2643 50 77 118
0.4455 -0.2856 121.3018 50 77 117
0.4477 -0.2860 121.3393 50 77 117
0.4498 -0.2863 121.3768 50 77 117
0.4518 -0.2866 121.4143 50 77 117
0.4538 -0.2869 121.4518 50 77 117
0.4557 -0.2871 121.4893 50 77 117
0.4575 -0.2873 121.5268 50 77 117
0.4592 -0.2875 121.5643 50 77 117
0.4608 -0.2877 121.6018 50 77 117
0.4624 -0.2878 121.6393 50 77 117
0.4638 -0.2879 121.6768 50 77 117
0.4652 -0.2880 121.7143 50 77 116
0.4665 -0.2880 121.7518 50 76 116
0.4677 -0.2880 121.7893 50 76 116
0.4689 -0.2880 121.8268 50 76 116
0.4699 -0.2880 121.8643 50 76 116
0.4709 -0.2879 121.9018 50 76 116
0.4718 -0.2878 121.9393 50 76 116
0.4726 -0.2877 121.9768 50 76 116
0.4734 -0.2875 122.0143 50 76 116
0.4740 -0.2874 122.0518 50 76 116
0.4746 -0.2872 122.0893 50 76 116
0.4751 -0.2869 122.1268 49 76 115
0.4755 -0.2867 122.1643 49 76 115
0.4758 -0.2864 122.2018 49 76 115
0.4761 -0.2861 122.2393 49 76 115
0.4763 -0.2858 122.2768 49 76 115
0.4764 -0.2854 122.3143 49 76 115
0.4764 -0.2850 122.3518 49 76 115
0.4763 -0.2846 122.3893 49 75 115
0.4762 -0.2842 122.4268 49 75 115
0.4760 -0.2837 122.4643 49 75 115
0.4757 -0.2832 122.5018 49 75 115
0.4753 -0.2827 122.5393 49 75 115
0.4749 -0.2822 122.5768 49 75 114
0.4743 -0.2816 122.6143 49 75 114
0.4737 -0.2810 122.6518 49 75 114
0.4731 -0.2804 122.6893 49 75 114
0.4723 -0.2798 122.7268 49 75 114
0.4715 -0.2791 122.7643 49 75 114
0.4706 -0.2784 122.8018 49 75 114
0.4696 -0.2777 122.8393 49 75 114
0.4686 -0.2770 122.8768 49 75 114
0.4675 -0.2762 122.9143 49 75 114
0.4663 -0.2754 122.9518 49 75 114
0.4650 -0.2746 122.9893 49 75 113
0.4637 -0.2738 123.0268 49 74 113
0.4623 -0.2729 123.0643 49 74 113
0.4608 -0.2721 123.1018 49 74 113
0.4592 -0.2712 123.1393 48 74 113
0.4576 -0.2702 123.1768 48 74 113
0.4559 -0.2693 123.2143 48 74 113
0.4542 -0.2683 123.2518 48 74 113
0.4524 -0.2674 123.2893 48 74 113
0.4505 -0.2664 123.3268 48 74 113
0.4485 -0.2653 123.3643 48 74 113
0.4465 -0.2643 123.4018 48 74 112
0.4444 -0.2632 123.4393 48 74 112
0.4423 -0.2621 123.4768 48 74 112
0.4401 -0.2610 123.5143 48 74 112
0.4378 -0.2599 123.5518 48 74 112
0.4355 -0.2587 123.5893 48 74 112
0.4331 -0.2575 123.6268 48 74 112
0.4306 -0.2563 123.6643 48 73 112
0.4281 -0.2551 123.7018 48 73 112
0.4255 -0.2539 123.7393 48 73 112
0.4229 -0.2526 123.7768 48 73 112
0.4202 -0.2514 123.8143 48 73 111
0.4174 -0.2501 123.8518 48 73 111
0.4146 -0.2488 123.8893 48 73 111
0.4118 -0.2475 123.9268 48 73 111
0.4088 -0.2461 123.9643 48 73 111
0.4059 -0.2447 124.0018 48 73 111
0.4028 -0.2434 124.0393 48 73 111
0.3997 -0.2420 124.0768 48 73 111
0.3966 -0.2405 124.1143 47 73 111
0.3934 -0.2391 124.1518 47 73 111
0.3902 -0.2377 124.1893 47 73 111
0.3869 -0.2362 124.2268 47 73 110
0.3835 -0.2347 124.2643 47 73 110
0.3802 -0.2332 124.3018 47 72 110
0.3767 -0.2317 124.3393 47 72 110
0.3732 -0.2302 124.3768 47 72 110
0.3697 -0.2286 124.4143 47 72 110
0.3661 -0.2271 124.4518 47 72 110
0.3625 -0.2255 124.4893 47 72 110
0.3588 -0.2239 124.5268 47 72 110
0.3551 -0.2223 124.5643 47 72 110
0.3514 -0.2207 124.6018 47 72 110
0.3476 -0.2190 124.6393 47 72 110
0.3438 -0.2174 124.6768 47 72 109
0.3399 -0.2157 124.7143 47 72 109
0.3360 -0.2140 124.7518 47 72 109
0.3321 -0.2123 124.7893 47 72 109
0.3281 -0.2106 124.8268 47 72 109
0.3241 -0.2089 124.8643 47 72 109
0.3200 -0.2072 124.9018 47 72 109
0.3159 -0.2055 124.9393 47 71 109
0.3118 -0.2037 124.9768 47 71 109
0.3077 -0.2019 125.0143 47 71 109
0.3035 -0.2002 125.0518 47 71 109
0.2993 -0.1984 125.0893 46 71 108
0.2950 -0.1966 125.1268 46 71 108
0.2907 -0.1948 125.1643 46 71 108
0.2864 -0.1930 125.2018 46 71 108
0.2821 -0.1911 125.2393 46 71 108
0.2777 -0.1893 125.2768 46 71 108
0.2734 -0.1874 125.3143 46 71 108
0.2690 -0.1856 125.3518 46 71 108
0.2645 -0.1837 125.3893 46 71 108
0.2601 -0.1818 125.4268 46 71 108
0.2556 -0.1799 125.4643 46 71 108
0.2511 -0.1780 125.5018 46 71 107
0.2466 -0.1761 125.5393 46 71 107
0.2421 -0.1742 125.5768 46 70 107
0.2375 -0.1723 125.6143 46 70 107
0.2329 -0.1704 125.6518 46 70 107
0.2284 -0.1684 125.6893 46 70 107
0.2238 -0.1665 125.7268 46 70 107
0.2191 -0.1645 125.7643 46 70 107
0.2145 -0.1626 125.8018 46 70 107
0.2099 -0.1606 125.8393 46 70 107
0.2052 -0.1587 125.8768 46 70 107
0.2006 -0.1567 125.9143 46 70 106
0.1959 -0.1547 125.9518 46 70 106
0.1912 -0.1527 125.9893 46 70 106
0.1865 -0.1507 126.0268 46 70 106
0.1818 -0.1487 126.0643 45 70 106
0.1771 -0.1467 126.1018 45 70 106
0.1724 -0.1447 126.1393 45 70 106
0.1677 -0.1427 126.1768 45 70 106
0.1629 -0.1407 126.2143 45 70 106
0.1582 -0.1387 126.2518 45 69 106
0.1535 -0.1367 126.2893 45 69 106
0.1488 -0.1346 126.3268 45 69 105
0.1440 -0.1326 126.3643 45 69 105
0.1393 -0.1306 126.4018 45 69 105
0.1346 -0.1285 126.4393 45 69 105
0.1299 -0.1265 126.4768 45 69 105
0.1251 -0.1245 126.5143 45 69 105
0.1204 -0.1224 126.5518 45 69 105
0.1157 -0.1204 126.5893 45 69 105
0.1110 -0.1183 126.6268 45 69 105
0.1063 -0.1163 126.6643 45 69 105
0.1016 -0.1143 126.7018 45 69 105
0.0969 -0.1122 126.7393 45 69 105
0.0922 -0.1102 126.7768 45 69 104
0.0876 -0.1081 126.8143 45 69 104
0.0829 -0.1061 126.8518 45 69 104
0.0783 -0.1040 126.8893 45 68 104
0.0736 -0.1020 126.9268 45 68 104
0.0690 -0.0999 126.9643 45 68 104
0.0644 -0.0979 127.0018 45 68 104
0.0598 -0.0958 127.0393 44 68 104
0.0552 -0.0938 127.0768 44 68 104
0.0506 -0.0918 127.1143 44 68 104
0.0461 -0.0897 127.1518 44 68 104
0.0416 -0.0877 127.1893 44 68 103
0.0370 -0.0857 127.2268 44 68 103
0.0326 -0.0836 127.2643 44 68 103
0.0281 -0.0816 127.3018 44 68 103
0.0236 -0.0796 127.3393 44 68 103
0.0192 -0.0775 127.3768 44 68 103
0.0148 -0.0755 127.4143 44 68 103
0.0104 -0.0735 127.4518 44 68 103
0.0060 -0.0715 127.4893 44 68 103
0.0017 -0.0695 127.5268 44 67 103
-0.0026 -0.0675 127.5643 44 67 103
-0.0069 -0.0655 127.6018 44 67 102
-0.0112 -0.0635 127.6393 44 67 102
-0.0154 -0.0615 127.6768 44 67 102
-0.0196 -0.0595 127.7143 44 67 102
-0.0238 -0.0575 127.7518 44 67 102
-0.0280 -0.0556 127.7893 44 67 102
-0.0321 -0.0536 127.8268 44 67 102
-0.0362 -0.0516 127.8643 44 67 102
-0.0403 -0.0497 127.9018 44 67 102
-0.0443 -0.0477 127.9393 44 67 102
-0.0483 -0.0458 127.9768 44 67 102
-0.0523 -0.0439 128.0143 43 67 101
-0.0562 -0.0419 128.0518 43 67 101
-0.0602 -0.0400 128.0893 43 67 101
-0.0640 -0.0381 128.1268 43 67 101
-0.0679 -0.0362 128.1643 43 66 101
-0.0717 -0.0343 128.2018 43 66 101
-0.0754 -0.0324 128.2393 43 66 101
-0.0792 -0.0305 128.2768 43 66 101
-0.0829 -0.0286 128.3143 43 66 101
-0.0865 -0.0267 128.3518 43 66 101
-0.0902 -0.0249 128.3893 43 66 101
-0.0937 -0.0230 128.4268 43 66 100
-0.0973 -0.0212 128.4643 43 66 100
-0.1008 -0.0194 128.5018 43 66 100
-0.1043 -0.0175 128.5393 43 66 100
-0.1077 -0.0157 128.5768 43 66 100
-0.1111 -0.0139 128.6143 43 66 100
-0.1144 -0.0121 128.6518 43 66 100
-0.1178 -0.0103 128.6893 43 66 100
-0.1210 -0.0086 128.7268 43 66 100
-0.1242 -0.0068 128.7643 43 66 100
-0.1274 -0.0050 128.8018 43 65 100
-0.1306 -0.0033 128.8393 43 65 100
-0.1337 -0.0016 128.8768 43 65 99
-0.1367 0.0002 128.9143 43 65 99
-0.1397 0.0019 128.9518 43 65 99
-0.1427 0.0036 128.9893 42 65 99
-0.1456 0.0053 129.0268 42 65 99
-0.1485 0.0069 129.0643 42 65 99
-0.1513 0.0086 129.1018 42 65 99
-0.1541 0.0103 129.1393 42 65 99
-0.1569 0.0119 129.1768 42 65 99
-0.1596 0.0135 129.2143 42 65 99
-0.1622 0.0152 129.2518 42 65 99
-0.1648 0.0168 129.2893 42 65 98
-0.1674 0.0184 129.3268 42 65 98
-0.1699 0.0199 129.3643 42 65 98
-0.1724 0.0215 129.4018 42 65 98
-0.1748 0.0231 129.4393 42 64 98
-0.1772 0.0246 129.4768 42 64 98
-0.1795 0.0261 129.5143 42 64 98
-0.1818 0.0276 129.5518 42 64 98
-0.1840 0.0292 129.5893 42 64 98
-0.1862 0.0306 129.6268 42 64 98
-0.1883 0.0321 129.6643 42 64 98
-0.1904 0.0336 129.7018 42 64 97
-0.1924 0.0350 129.7393 42 64 97
-0.1944 0.0365 129.7768 42 64 97
-0.1964 0.0379 129.8143 42 64 97
-0.1982 0.0393 129.8518 42 64 97
-0.2001 0.0407 129.8893 42 64 97
-0.2019 0.0421 129.9268 42 64 97
-0.2036 0.0434 129.9643 42 64 97
-0.2053 0.0448 130.0018 41 64 97
-0.2070 0.0461 130.0393 41 64 97
-0.2086 0.0474 130.0768 41 63 97
-0.2101 0.0488 130.1143 41 63 96
-0.2116 0.0500 130.1518 41 63 96
-0.2131 0.0513 130.1893 41 63 96
-0.2145 0.0526 130.2268 41 63 96
-0.2158 0.0538 130.2643 41 63 96
-0.2171 0.0551 130.3018 41 63 96
-0.2184 0.0563 130.3393 41 63 96
-0.2196 0.0575 130.3768 41 63 96
-0.2207 0.0587 130.4143 41 63 96
-0.2218 0.0598 130.4518 41 63 96
-0.2229 0.0610 130.4893 41 63 96
-0.2239 0.0621 130.5268 41 63 95
-0.2249 0.0633 130.5643 41 63 95
-0.2258 0.0644 130.6018 41 63 95
-0.2267 0.0655 130.6393 41 63 95
-0.2275 0.0665 130.6768 41 63 95
-0.2283 0.0676 130.7143 41 62 95
-0.2290 0.0686 130.7518 41 62 95
-0.2297 0.0697 130.7893 41 62 95
-0.2303 0.0707 130.8268 41 62 95
-0.2309 0.0717 130.8643 41 62 95
-0.2314 0.0727 130.9018 41 62 95
-0.2319 0.0736 130.9393 41 62 95
-0.2323 0.0746 130.9768 40 62 94
-0.2327 0.0755 131.0143 40 62 94
-0.2331 0.0764 131.0518 40 62 94
-0.2334 0.0773 131.0893 40 62 94
-0.2336 0.0782 131.1268 40 62 94
-0.2338 0.0791 131.1643 40 62 94
-0.2340 0.0800 131.2018 40 62 94
-0.2341 0.0808 131.2393 40 62 94
-0.2342 0.0816 131.2768 40 62 94
-0.2342 0.0824 131.3143 40 62 94
-0.2342 0.0832 131.3518 40 61 94
-0.2341 0.0840 131.3893 40 61 93
-0.2340 0.0847 131.4268 40 61 93
-0.2339 0.0855 131.4643 40 61 93
-0.2337 0.0862 131.5018 40 61 93
-0.2335 0.0869 131.5393 40 61 93
-0.2332 0.0876 131.5768 40 61 93
-0.2329 0.0883 131.6143 40 61 93
-0.2325 0.0889 131.6518 40 61 93
-0.2321 0.0896 131.6893 40 61 93
-0.2317 0.0902 131.7268 40 61 93
-0.2312 0.0908 131.7643 40 61 93
-0.2307 0.0914 131.8018 40 61 92
-0.2301 0.0920 131.8393 40 61 92
-0.2295 0.0925 131.8768 40 61 92
-0.2289 0.0931 131.9143 40 61 92
-0.2282 0.0936 131.9518 39 61 92
-0.2275 0.0941 131.9893 39 60 92
-0.2267 0.0946 132.0268 39 60 92
-0.2260 0.0951 132.0643 39 60 92
-0.2251 0.0955 132.1018 39 60 92
-0.2243 0.0960 132.1393 39 60 92
-0.2234 0.0964 132.1768 39 60 92
-0.2224 0.0968 132.2143 39 60 91
-0.2215 0.0972 132.2518 39 60 91
-0.2205 0.0976 132.2893 39 60 91
-0.2194 0.0980 132.3268 39 60 91
-0.2183 0.0983 132.3643 39 60 91
-0.2172 0.0987 132.4018 39 60 91
-0.2161 0.0990 132.4393 39 60 91
-0.2149 0.0993 132.4768 39 60 91
-0.2137 0.0996 132.5143 39 60 91
-0.2125 0.0999 132.5518 39 60 91
-0.2112 0.1001 132.5893 39 60 91
-0.2099 0.1004 132.6268 39 59 90
-0.2086 0.1006 132.6643 39 59 90
-0.2073 0.1008 132.7018 39 59 90
-0.2059 0.1010 132.7393 39 59 90
-0.2045 0.1012 132.7768 39 59 90
-0.2030 0.1013 132.8143 39 59 90
-0.2016 0.1015 132.8518 39 59 90
-0.2001 0.1016 132.8893 39 59 90
-0.1986 0.1017 132.9268 38 59 90
-0.1970 0.1018 132.9643 38 59 90
-0.1955 0.1019 133.0018 38 59 90
-0.1939 0.1020 133.0393 38 59 90
-0.1922 0.1021 133.0768 38 59 89
-0.1906 0.1021 133.1143 38 59 89
-0.1889 0.1022 133.1518 38 59 89
-0.1873 0.1022 133.1893 38 59 89
-0.1856 0.1022 133.2268 38 59 89
-0.1838 0.1022 133.2643 38 58 89
-0.1821 0.1021 133.3018 38 58 89
-0.1803 0.1021 133.3393 38 58 89
-0.1785 0.1021 133.3768 38 58 89
-0.1767 0.1020 133.4143 38 58 89
-0.1749 0.1019 133.4518 38 58 89
-0.1730 0.1018 133.4893 38 58 88
-0.1712 0.1017 133.5268 38 58 88
-0.1693 0.1016 133.5643 38 58 88
-0.1674 0.1015 133.6018 38 58 88
-0.1655 0.1013 133.6393 38 58 88
-0.1636 0.1012 133.6768 38 58 88
-0.1617 0.1010 133.7143 38 58 88
-0.1597 0.1008 133.7518 38 58 88
-0.1577 0.1006 133.7893 38 58 88
-0.1558 0.1004 133.8268 38 58 88
-0.1538 0.1002 133.8643 38 58 88
-0.1518 0.0999 133.9018 37 57 87
-0.1498 0.0997 133.9393 37 57 87
-0.1477 0.0994 133.9768 37 57 87
-0.1457 0.0991 134.0143 37 57 87
-0.1437 0.0989 134.0518 37 57 87
-0.1416 0.0986 134.0893 37 57 87
-0.1396 0.0983 134.1268 37 57 87
-0.1375 0.0979 134.1643 37 57 87
-0.1354 0.0976 134.2018 37 57 87
-0.1334 0.0973 134.2393 37 57 87
-0.1313 0.0969 134.2768 37 57 87
-0.1292 0.0966 134.3143 37 57 86
-0.1271 0.0962 134.3518 37 57 86
-0.1250 0.0958 134.3893 37 57 86
-0.1229 0.0954 134.4268 37 57 86
-0.1208 0.0950 134.4643 37 57 86
-0.1187 0.0946 134.5018 37 57 86
-0.1166 0.0942 134.5393 37 56 86
-0.1145 0.0937 134.5768 37 56 86
-0.1124 0.0933 134.6143 37 56 86
-0.1103 0.0928 134.6518 37 56 86
-0.1082 0.0923 134.6893 37 56 86
-0.1061 0.0919 134.7268 37 56 86
-0.1040 0.0914 134.7643 37 56 85
-0.1019 0.0909 134.8018 37 56 85
-0.0998 0.0904 134.8393 37 56 85
-0.0977 0.0899 134.8768 36 56 85
-0.0956 0.0894 134.9143 36 56 85
-0.0935 0.0888 134.9518 36 56 85
-0.0914 0.0883 134.9893 36 56 85
-0.0893 0.0877 135.0268 36 56 85
-0.0873 0.0872 135.0643 36 56 85
-0.0852 0.0866 135.1018 36 56 85
-0.0831 0.0861 135.1393 36 56 85
-0.0811 0.0855 135.1768 36 55 84
-0.0790 0.0849 135.2143 36 55 84
-0.0770 0.0843 135.2518 36 55 84
-0.0750 0.0837 135.2893 36 55 84
-0.0730 0.0831 135.3268 36 55 84
-0.0709 0.0825 135.3643 36 55 84
-0.0690 0.0819 135.4018 36 55 84
-0.0670 0.0812 135.4393 36 55 84
-0.0650 0.0806 135.4768 36 55 84
-0.0630 0.0799 135.5143 36 55 84
-0.0611 0.0793 135.5518 36 55 84
-0.0591 0.0786 135.5893 36 55 83
-0.0572 0.0780 135.6268 36 55 83
-0.0553 0.0773 135.6643 36 55 83
-0.0534 0.0767 135.7018 36 55 83
-0.0515 0.0760 135.7393 36 55 83
-0.0496 0.0753 135.7768 36 55 83
-0.0478 0.0746 135.8143 36 54 83
-0.0459 0.0739 135.8518 35 54 83
-0.0441 0.0732 135.8893 35 54 83
-0.0423 0.0725 135.9268 35 54 83
-0.0405 0.0718 135.9643 35 54 83
-0.0387 0.0711 136.0018 35 54 82
-0.0370 0.0704 136.0393 35 54 82
-0.0352 0.0697 136.0768 35 54 82
-0.0335 0.0690 136.1143 35 54 82
-0.0318 0.0682 136.1518 35 54 82
-0.0301 0.0675 136.1893 35 54 82
-0.0285 0.0668 136.2268 35 54 82
-0.0268 0.0661 136.2643 35 54 82
-0.0252 0.0653 136.3018 35 54 82
-0.0236 0.0646 136.3393 35 54 82
-0.0220 0.0638 136.3768 35 54 82
-0.0204 0.0631 136.4143 35 54 81
-0.0189 0.0624 136.4518 35 53 81
-0.0174 0.0616 136.4893 35 53 81
-0.0159 0.0609 136.5268 35 53 81
-0.0144 0.0601 136.5643 35 53 81
-0.0129 0.0594 136.6018 35 53 81
-0.0115 0.0586 136.6393 35 53 81
-0.0101 0.0578 136.6768 35 53 81
-0.0087 0.0571 136.7143 35 53 81
-0.0073 0.0563 136.7518 35 53 81
-0.0060 0.0556 136.7893 35 53 81
-0.0047 0.0548 136.8268 35 53 81
-0.0034 0.0540 136.8643 34 53 80
-0.0021 0.0533 136.9018 34 53 80
-0.0009 0.0525 136.9393 34 53 80
0.0003 0.0518 136.9768 34 53 80
0.0015 0.0510 137.0143 34 53 80
0.0027 0.0502 137.0518 34 53 80
0.0039 0.0495 137.0893 34 52 80
0.0050 0.0487 137.1268 34 52 80
0.0061 0.0480 137.1643 34 52 80
0.0071 0.0472 137.2018 34 52 80
0.0082 0.0465 137.2393 34 52 80
0.0092 0.0457 137.2768 34 52 79
0.0102 0.0450 137.3143 34 52 79
0.0112 0.0442 137.3518 34 52 79
0.0121 0.0435 137.3893 34 52 79
0.0130 0.0427 137.4268 34 52 79
0.0139 0.0420 137.4643 34 52 79
0.0147 0.0412 137.5018 34 52 79
0.0156 0.0405 137.5393 34 52 79
0.0164 0.0397 137.5768 34 52 79
0.0172 0.0390 137.6143 34 52 79
0.0179 0.0383 137.6518 34 52 79
0.0186 0.0375 137.6893 34 52 78
0.0193 0.0368 137.7268 34 51 78
0.0200 0.0361 137.7643 34 51 78
0.0207 0.0354 137.8018 34 51 78
0.0213 0.0347 137.8393 33 51 78
0.0219 0.0339 137.8768 33 51 78
0.0224 0.0332 137.9143 33 51 78
0.0230 0.0325 137.9518 33 51 78
0.0235 0.0318 137.9893 33 51 78
0.0240 0.0311 138.0268 33 51 78
0.0244 0.0304 138.0643 33 51 78
0.0248 0.0297 138.1018 33 51 77
0.0252 0.0291 138.1393 33 51 77
0.0256 0.0284 138.1768 33 51 77
0.0260 0.0277 138.2143 33 51 77
0.0263 0.0270 138.2518 33 51 77
0.0266 0.0264 138.2893 33 51 77
0.0269 0.0257 138.3268 33 51 77
0.0271 0.0251 138.3643 33 50 77
0.0273 0.0244 138.4018 33 50 77
0.0275 0.0238 138.4393 33 50 77
0.0277 0.0231 138.4768 33 50 77
0.0278 0.0225 138.5143 33 50 76
0.0279 0.0219 138.5518 33 50 76
0.0280 0.0213 138.5893 33 50 76
0.0281 0.0207 138.6268 33 50 76
0.0281 0.0201 138.6643 33 50 76
0.0281 0.0195 138.7018 33 50 76
0.0281 0.0189 138.7393 33 50 76
0.0281 0.0183 138.7768 33 50 76
0.0280 0.0177 138.8143 32 50 76
0.0279 0.0171 138.8518 32 50 76
0.0278 0.0166 138.8893 32 50 76
0.0277 0.0160 138.9268 32 50 76
0.0275 0.0155 138.9643 32 50 75
0.0273 0.0149 139.0018 32 50 75
0.0271 0.0144 139.0393 32 49 75
0.0269 0.0139 139.0768 32 49 75
0.0266 0.0134 139.1143 32 49 75
0.0263 0.0129 139.1518 32 49 75
0.0260 0.0124 139.1893 32 49 75
0.0257 0.0119 139.2268 32 49 75
0.0254 0.0114 139.2643 32 49 75
0.0250 0.0109 139.3018 32 49 75
0.0246 0.0104 139.3393 32 49 75
0.0242 0.0100 139.3768 32 49 74
0.0238 0.0095 139.4143 32 49 74
0.0233 0.0091 139.4518 32 49 74
0.0228 0.0087 139.4893 32 49 74
0.0224 0.0082 139.5268 32 49 74
0.0218 0.0078 139.5643 32 49 74
0.0213 0.0074 139.6018 32 49 74
0.0208 0.0070 139.6393 32 49 74
0.0202 0.0066 139.6768 32 48 74
0.0196 0.0062 139.7143 32 48 74
0.0190 0.0059 139.7518 32 48 74
0.0184 0.0055 139.7893 31 48 73
0.0177 0.0052 139.8268 31 48 73
0.0171 0.0048 139.8643 31 48 73
0.0164 0.0045 139.9018 31 48 73
0.0157 0.0042 139.9393 31 48 73
0.0150 0.0039 139.9768 31 48 73
0.0143 0.0036 140.0143 31 48 73
0.0135 0.0033 140.0518 31 48 73
0.0128 0.0030 140.0893 31 48 73
0.0120 0.0027 140.1268 31 48 73
0.0112 0.0025 140.1643 31 48 73
0.0105 0.0022 140.2018 31 48 72
0.0096 0.0020 140.2393 31 48 72
0.0088 0.0017 140.2768 31 48 72
0.0080 0.0015 140.3143 31 47 72
0.0071 0.0013 140.3518 31 47 72
0.0063 0.0011 140.3893 31 47 72
0.0054 0.0009 140.4268 31 47 72
0.0045 0.0007 140.4643 31 47 72
0.0037 0.0006 140.5018 31 47 72
0.0028 0.0004 140.5393 31 47 72
0.0018 0.0003 140.5768 31 47 72
0.0009 0.0001 140.6143 31 47 71
0.0000 0.0000 0.0000 145 8 132
-1.0098 -0.9250 74.9984 119 96 30
0.0239 0.2724 11.6006 151 8 137
0.9713 -1.2669 57.2244 18 76 101
-1.6101 0.2848 51.6862 16 67 89
1.5957 1.0151 54.0713 17 71 95
-0.5848 -2.1754 59.2398 19 80 106
-0.8554 1.6469 45.4295 13 57 76
2.5581 -0.9342 62.6161 109 78 27
-2.3060 -0.9519 54.2539 17 71 95
0.1882 0.4023 9.1862 148 8 134
0.6937 -2.2116 45.8057 14 58 77
-3.1096 1.8021 68.1217 115 89 29
0.2722 0.0598 5.0820 146 8 132
-1.5018 -2.1361 45.9451 14 58 77
-0.4053 3.1273 53.6619 17 71 94
3.5753 -3.0133 77.1114 119 97 30
-3.3335 -0.1378 53.4218 16 70 93
2.7176 2.7044 59.7026 19 80 107
-0.1525 -3.2979 50.0706 15 65 86
-2.8155 3.3739 64.9948 113 84 28
3.9148 -0.5267 57.0443 18 76 101
-3.4176 -2.3778 58.7688 109 77 27
0.9181 4.0809 57.7686 18 77 103
2.6783 -4.6741 72.8597 117 92 29
-4.2180 1.3456 58.6896 109 78 27
3.8732 1.7895 55.4765 17 74 98
-2.3950 -5.7228 79.1761 122 102 31
-1.8915 5.2589 70.0586 116 90 29
4.1459 -2.1790 57.7044 18 77 103
-6.1019 -1.6085 76.4548 122 101 30
2.9408 4.5737 64.8207 111 82 28
0.7057 -4.1063 48.8938 15 63 84
-3.6149 2.7996 52.8439 16 69 92
4.0553 0.3360 46.3396 14 59 78
-3.4814 -3.7633 57.5497 18 77 102
0.0347 7.1029 78.6279 122 101 30
4.6954 -5.1759 76.3139 119 96 30
-5.1882 0.4808 56.1505 18 75 99
3.5376 2.6849 47.2456 14 60 80
-0.8921 -4.9040 52.3637 16 69 91
-0.6209 0.9867 12.0972 152 8 137
5.3274 -1.4600 56.6388 18 76 101
-5.7280 -2.9395 65.2453 114 86 28
1.7145 4.6245 49.4130 15 64 85
2.5978 -6.3814 68.2597 114 87 29
-4.4949 2.1302 48.7426 15 63 83
5.4827 1.6904 55.6219 17 74 98
-0.8246 -1.4070 15.6451 159 8 144
-0.3214 1.4969 14.5373 156 8 142
4.2747 -3.0365 49.2879 15 64 85
-1.5563 -0.1940 14.5976 157 8 142
3.2256 3.7895 45.8709 14 58 77
0.2138 -5.8626 53.5629 17 71 94
-4.5013 4.5677 58.0073 18 78 104
1.6766 -0.0857 15.0471 158 8 143
-4.8521 -4.0091 55.9067 18 75 99
1.0460 7.4971 66.6443 113 85 28
4.0485 -5.8797 62.3048 110 79 27
-7.5340 1.7336 66.8983 115 89 29
4.5920 2.6016 45.2878 13 57 76
-0.4715 -1.4534 13.0036 153 8 139
-3.3815 7.4136 68.7806 115 88 29
0.8397 -0.3563 7.6383 147 8 133
-1.5092 -0.5345 13.3010 154 8 139
0.7261 1.3653 12.7468 153 8 138
1.7736 -6.8642 57.9968 18 78 104
-6.6235 4.3046 64.1347 113 84 28
7.1491 1.1928 58.4099 18 79 105
-4.6593 -5.9560 60.4949 109 78 27
-0.5772 7.4059 58.9987 19 80 106
5.0817 -4.7473 54.8399 17 73 97
-8.5259 0.0832 66.7672 115 89 29
7.5137 6.7495 78.5443 121 100 30
-0.8646 -8.8580 68.7404 115 88 29
-4.5301 6.0296 57.8573 18 78 104
5.7709 -1.0790 44.7401 13 57 75
-6.7749 -4.2174 60.4167 110 80 27
1.6317 5.8420 45.6234 14 58 77
0.6385 -1.2593 10.5518 150 8 135
-7.8217 2.9433 62.0635 112 82 28
6.6596 2.6732 52.9600 16 70 93
-4.4109 -9.1912 74.7748 119 95 30
-2.5523 8.4242 64.1688 111 82 28
8.9502 -5.3042 75.3872 119 95 30
-7.9688 -1.6706 58.6468 19 79 106
4.5126 6.2875 55.4179 17 74 99
0.9878 -8.2541 59.1801 19 80 107
-6.0654 5.2140 56.6136 18 76 101
1.7613 0.0556 12.4015 152 8 138
-7.0040 -6.8352 68.4883 115 88 29
0.1248 2.2282 15.5310 159 8 144
5.1061 -6.2417 55.8120 18 75 99
-8.8993 1.2859 61.8928 112 83 28
8.1819 5.5750 67.7821 113 86 28
-2.2139 -9.4110 65.8355 112 84 28
-5.4796 9.7827 75.9528 119 97 30
10.2732 -3.3882 72.8918 116 91 29
-10.1057 -4.5500 74.2929 120 98 30
3.2689 7.6016 55.1851 17 74 98
3.1328 -8.9842 63.1334 112 83 28
-1.6131 0.8680 12.0933 152 8 137
11.3246 2.8673 76.7407 119 96 30
-5.9340 -9.0338 70.6522 116 90 29
-1.3454 8.3138 54.7837 17 73 97
8.9060 -7.0374 73.4789 118 94 30
-7.7731 -0.5677 50.2109 15 66 87
6.0984 6.4646 56.9832 18 77 102
-0.1448 -9.8901 63.1228 111 81 28
-7.9996 8.9932 76.4536 120 98 30
7.2644 -0.7448 46.1706 14 59 79
-7.5217 -5.5939 58.9958 19 80 107
2.2706 11.8248 75.4370 120 99 30
6.3840 -10.3679 75.9389 121 100 30
-8.4905 2.4162 54.8114 17 73 98
8.1096 4.0622 56.0683 18 76 100
-3.2311 -8.4611 55.7416 18 75 100
-0.7805 1.9721 12.9965 153 8 139
8.5033 -4.1320 57.6826 18 78 104
-12.1379 -3.6130 76.9384 122 102 31
4.0690 6.7903 47.8885 15 62 82
2.1441 -10.4817 64.4496 113 84 28
-10.4038 7.5442 77.0927 121 100 30
2.3423 0.2687 14.0847 156 8 141
-0.3332 -0.3838 3.0236 145 8 132
-0.2879 10.7833 63.9163 111 82 28
5.7685 -5.9690 48.9856 15 64 85
-11.0810 0.6750 65.2499 114 86 28
1.5893 1.2873 11.9732 152 8 137
-1.6375 -10.9547 64.5868 111 82 28
-5.4553 8.0907 56.6763 18 77 102
7.6291 -1.8340 45.3961 14 58 77
-7.0683 -3.9140 46.5645 14 60 80
4.2083 12.5534 76.0116 122 101 30
